ply
format ascii 1.0
comment Created by Open3D
element vertex 1948
property double x
property double y
property double z
end_header
-855.927 -303.604 1222.63
-922.27 -308.712 1395.69
-568.844 -186.321 886.962
-240.819 72.3159 393.43
-269.123 -82.6604 445.081
-878.803 -134.278 1505.66
-908.62 -264.188 1562.36
-358.115 -253.687 621.274
-345.487 -39.4454 608.046
-440.76 -222.159 816.174
-937.391 -262.642 1760.99
-867.392 -139.482 1674.6
-240.267 191.593 459.772
-895.55 -145.429 1807.57
-358.102 -319.588 734.268
-965.173 -272.223 2016.09
-413.097 -362.517 876.001
-882.573 -235.508 1898.06
-237.091 49.0274 529.087
-421.009 -261.192 956.598
-476.196 -144.818 1091.74
-762.29 -138.724 1787.05
-511.885 -93.7544 1204.96
-406.584 -6.39133 955.319
-261.52 -341.978 607.287
-411.117 -132.605 978.716
-345.893 -5.54447 827.596
-870.672 -273.038 2110.2
-441.304 -10.1723 1079.72
-886.535 -177.218 2207.51
-738.588 -215.129 1902.56
-804.13 -398.016 2132.43
-416.005 -449.847 1102.89
-618.938 -92.1639 1651.03
-151.062 -19.1928 396.397
-404.162 -274.163 1083.07
-729.626 -355.602 1991.94
-774.046 -598.153 2161.82
-734.826 -506.27 2052.18
-659.043 -37.3574 1838.95
-817.311 -899.944 2295.54
-817.162 -736.686 2299.25
-193.604 -244.782 540.027
-740.155 -225.826 2098.74
-732.699 -36.5075 2077.07
-792.152 -490.604 2265.06
-806.368 -141.076 2304.76
-816.054 -1043.37 2360.7
-818.112 -398.087 2376.43
-814.442 -581.512 2385.06
-138.323 243.545 389.722
-289.819 -395.176 845.474
-823.32 -234.811 2429.37
-333.813 -458.856 983.24
-127.49 -142.15 371.573
-767.017 -288.976 2281.31
-807.115 -874.842 2439.56
-797.751 -68.6867 2411.3
-805.049 -725.241 2476.37
-820.578 -148.769 2543.53
-726.148 -51.8283 2249.63
-414.294 -596.664 1297.99
-219.561 84.1493 686.114
-804.784 -568.638 2561.66
-812.406 -287.538 2606.75
-776.441 -1026.68 2533.79
-790.535 -855.184 2583.48
-601.27 -264.807 1961.67
-794.673 -717.399 2621
-582.265 -419.518 1935.07
-169.738 157.666 568.571
-791.634 -608.469 2707.9
-740.571 -421.25 2555.22
-767.04 -1121.55 2696.23
-783.282 -746.759 2783.96
-771.554 -938.956 2769.11
-788.885 -103.696 2826.28
-722.811 -74.5336 2614.28
-459.244 -464.682 1677.69
-744.658 -211.252 2720.95
-755.5 -1249.06 2816.75
-179.929 248.247 665.371
-468.886 -267.992 1800.95
-450.781 -791.268 1748.63
-751.273 -1111.48 2925.14
-759.781 -890.295 2959.12
-429.249 -646.478 1685.56
-749.469 -1335.98 2977.04
-166.561 -113.976 662.381
-465.387 -68.5515 1864.15
-752.468 -1154.28 3060.46
-476.018 -887.739 1951.38
-753.686 -1017.11 3100.49
-273.229 -589.636 1125.31
-753.692 -1344.65 3132.48
-446.025 -544.149 1873.09
-750.222 -1195.54 3193.56
-261.345 -186.179 1105.02
-755.267 -1465.78 3248.19
-438.59 -722.568 1885.26
-41.8027 -75.6415 173.902
-753.259 -1094.78 3283.22
-190.47 315.529 823.62
-750.262 -959.322 3308.58
-426.495 -375.658 1897.65
-172.817 -419.985 769.783
-421.892 -189.235 1897.8
-746.533 -1464.73 3413.96
-750.929 -1276.84 3436.63
-749.298 -1096.65 3428.91
-213.112 349.397 969.13
-750.762 -1597.06 3519.33
-285.498 -556.242 1334.15
-441.953 -589.938 2070
-200.263 -522.272 939.652
-171.355 -149.329 817.114
-420.064 -261.385 2014.2
-742.947 -1238.64 3626.65
-743.58 -1051.93 3628.17
-170.328 12.5844 821.691
-735.354 -1509.94 3636.8
-473.445 -844.607 2339.26
-202.086 -259.796 992.614
-737.885 -1727.26 3694.75
-239.586 -469.234 1195.62
-406.693 -91.2956 2028.11
-588.34 -107.973 2937.72
-172.903 171.276 870.77
-715.392 -1603.58 3739.4
-467.299 -941.02 2440.75
-397.33 -421.107 2069.95
-189.77 -6.59512 982.041
-226.216 -321.633 1193.13
-420.845 -130.325 2220.45
-450.904 -126.608 2379.59
-419.462 -445.307 2249.68
-226.333 -41.2652 1207.5
-712.644 -1446.15 3893.65
-327.438 -420.964 1781.57
-195.94 170.653 1061.22
-197.261 456.387 1071.1
-220.213 516.04 1196.64
-463.082 -478.5 2559.14
-438.153 -406.436 2420.13
-396.419 -289.918 2187.58
-511.321 -111.48 2821.6
-696.718 -1628.09 3922.62
-454.988 -191.389 2548.88
-92.0615 -158.285 518.688
-416.832 -249.452 2371.51
-471.698 -135.419 2683.46
-202.497 339.075 1151.18
-697.076 -1261.57 4048.13
-448.76 -336.679 2595.07
-688.173 -1508.75 4062.55
-455.491 -732.268 2726.86
-458.847 -303.043 2739.6
-458.269 -505.506 2784.7
-507.063 -129.989 3076.73
-602.447 -1794.58 3730.16
-686.466 -1639.23 4258.28
-682.582 -1457.09 4233.41
-679.082 -1312.04 4210.13
-647.05 -1704.99 4081.71
-308.195 -462.79 1936.41
-466.029 -483.712 2928.5
-470.067 -350.673 2951.79
-583.243 -1645.26 3741.74
-624.656 -288.595 3991.83
-708.585 -191.178 4528.35
-674.603 -1732.88 4408.35
-673.51 -1562.39 4400.72
-668.863 -1301.81 4367.31
-652.385 -1130.51 4257.1
-261.14 -327.137 1696.45
-315.537 -539.558 2091.54
-579.462 -403.317 3837.82
-669.053 -1461.27 4531.52
-665.866 -1331.52 4508.05
-665.187 -1170.7 4500.58
-450.745 -577.183 3042.67
-488.144 -373.031 3291.63
-522.052 -389.316 3520.74
-646.657 -1639.8 4549.36
-662.354 -1387.92 4656.37
-191.105 -45.5222 1331.75
-666.008 -1461.84 4774.26
-312.307 -569.659 2232.05
-429.369 -431.157 3065.18
-651.222 -1224.48 4756.87
-320.62 -1212.92 2434.54
-489.646 -481.676 3713.74
-575.245 -303.463 4361.19
-541.041 -1746.45 4209.1
-962.101 -1883.26 7477.87
-534.751 -299.401 4139.55
-184.42 45.1392 1421.53
-482.134 -1621.28 3831.03
-594.141 -1689.45 4722.73
-469.056 -319.04 3709.04
-493.762 -293.118 3904.42
-383.842 -128.219 3032.52
-493.757 -1675.26 4010.78
-749.856 -2162.82 6094.67
-893.149 -2536.62 7260.57
-558.287 -264.686 4512.8
-206.604 -70.541 1664.39
-531.542 -1760.13 4416.56
-638.128 -1535.89 5297.53
-185.403 -52.1574 1526.54
-432.264 -1714.53 3670.49
-436.467 -1589.83 3708.63
-875.72 -2561.74 7448.07
-899.18 -1923.06 7635.26
-377.658 -178.601 3191.17
-613.355 -1509.37 5461.09
-376.114 -305.118 3333.67
-483.918 -1695.77 4533.51
-617.653 -1975.44 5786.83
-608.964 -1776.86 5702.64
-596.426 -1633.83 5583.07
-209.081 -98.3057 1943.2
-411.577 -1544.64 3955.94
-618.652 -2095.18 5948.91
-605.946 -1719.21 5821.23
-437.878 -1663.99 4322.57
-332.62 -423.961 3266.29
-347.689 -200.29 3411.62
-588.812 -1746.64 5968.84
-755.702 -2220.84 7662.65
-573.007 -1509.91 5804.41
-338.499 -405.989 3415.51
-211.655 -119.451 2130.81
-227.027 -121.858 2286.15
-197.917 -491.386 2055.17
-301.688 -414.949 3130.43
-379.981 -1570.64 4079.54
-552.22 -2250.31 5932.47
-339.631 -431.168 3627.63
-337.317 -221.218 3600.35
-334.295 -1503.93 3696.54
-668.747 -2827.38 7402.95
-268.312 -577.052 2954.76
-345.281 -389.178 3798.44
-348.266 -224.794 3829.51
-321.441 -1640.67 3663.67
-511.159 -2164.77 5831.86
-500.693 -1374.47 5698.85
-287.512 -592.928 3264.4
-98.3346 74.9596 1108.75
-496.639 -1932.05 5844.73
-491.409 -1644.09 5778.01
-482.06 -1535.6 5666.25
-338.612 -764.081 3970.5
-331.767 -567.962 3886.43
-214.756 -126.865 2509.5
-47.2118 229.215 548.143
-618.61 -2179.14 7517.83
-523.672 -1810.04 6362.01
-642.127 -2113.22 7800.76
-154.422 -436.65 1867.76
-495.185 -1154.39 6003
-311.028 -704.49 3766.84
-289.848 -637.332 3509.33
-105.177 68.0811 1265.43
-309.314 -1508.06 3889.08
-468.214 -1785.96 5884.62
-271.381 -570.716 3396.94
-326.594 -273.219 4083.48
-92.6115 -638.219 1196.36
-589.988 -1535.67 7662.92
-182.006 -1287 2447.33
-135.017 -41.8773 1806.83
-25.2079 201.517 329.825
-524.412 -2789.51 7355.78
-250.08 -1750.03 3639.86
-528.915 -2086.01 7699.55
-271.935 -285.173 3939.21
-72.2669 308.284 1045.03
-250.058 -551.907 3775.62
-135.135 -24.7856 2033.46
-367.629 -2034.19 5819.6
-250.329 -414.557 3940.24
-354.292 -1889.2 5858.49
-459.865 -1561.89 7587.03
-247.388 -405.865 4069.22
-44.9126 320.607 735.724
-330.869 -1488.75 5721.34
-344.699 -1193.46 5952.52
-225.946 -697.082 3896.92
-236.582 -551.44 4077.25
-137.92 -15.8717 2370.28
-93.0606 41.9381 1596.58
-407.607 -2832.37 7415.7
-326.084 -1765.73 5923.01
-352.728 -1770.39 6404.61
-419.32 -2063.13 7614.45
-331.92 -1074.73 6012.66
-200.66 -550.435 3629.45
-231.974 -292.004 4192.05
-90.8222 -380.307 1726.31
-217.38 -729.198 4139.87
-220.344 -440.92 4191
-76.7399 561.493 1461.91
-119.189 -1167.95 2398.82
-288.51 -2193.41 5823.58
-292.013 -1033.38 5870.31
-179.022 -1512.97 3821.17
-341.308 -2785.34 7292.36
-354.295 -2191.35 7558.72
-361.011 -2211.91 7701.71
-55.8731 232.33 1182.08
-105.603 -1364.05 2540.38
-139.906 -537.621 3362.61
-141.217 -1634.46 3650.11
-225.493 -1848.06 5828.35
-77.0333 -338.552 1978.72
-97.2557 44.8984 2495.53
-213.401 -1202.82 5918.24
-192.92 -2014.16 5806.89
-189.819 -1717.42 5708.42
-184.464 -1638.74 5546.47
-66.111 -506.078 1980.39
-170.337 -1465.95 5574.83
-226.28 -1563.75 7399.45
-121.639 -536.67 3967.17
-81.1933 -119.123 2642.16
-59.4732 24.1958 1932.76
-216.589 -1516.17 7774.31
-212.021 -1380.33 7607.85
-217.515 -1373.47 7804.29
-105.279 -520.346 3769.96
-116.526 -541.682 4173.03
-116.682 -210.84 4174.39
-32.773 454.589 1173.51
-92.8677 -1487.52 3705.71
-175.885 -2702.61 7025.45
-145.125 -2151.12 5794.51
-193.73 -2240.18 7726.9
-193.258 -2108.76 7705.19
-189.657 -2028.26 7560.49
-162.745 -1121.65 6471.96
-80.2263 -544.208 3185.81
-62.5515 -98.1326 2477.35
-56.808 -33.5789 2248.86
-142.65 -1798.53 6380.73
-48.4259 -1273.46 2461.46
-77.2498 -1548.89 3939.14
-143.948 -2866.24 7347.59
-116.832 -1839.77 5954.63
-149.031 -2222.7 7595.48
-144.286 -1951.64 7348.76
-149.646 -1525.59 7610.14
-126.073 -1250.27 6409.21
-104.395 -1942.74 6179.96
-131.875 -1710.07 7791.74
-59.8992 -564.304 3529.61
-70.6971 -381.114 4162.6
-64.055 -149.116 3768.84
-87.803 -2100.08 6200.19
-104.901 -1500.9 7386.57
-58.3634 -711.661 4103.03
-55.9458 -176.79 3925.21
-83.6781 -2637.25 7319.79
-22.9907 -1410.59 2627.57
-62.2103 -2631.65 7142.99
-54.7268 -2212.53 6281.31
-55.1949 -1972.86 6330.44
-45.3231 -1491.58 7542.53
-19.9325 -574.48 3310.41
-5.64354 409.088 935.221
-13.4365 -183.993 4085.42
-6.94844 -37.2757 2108.23
-4.75676 45.795 1440.59
-1.97942 -1567.29 3633.14
-4.21355 -2241.3 7730.56
-4.16972 -1738.72 7638.65
-2.24363 -509.498 4097.08
0.656706 -142.297 293.218
7.99934 -1703.35 3669.28
15.421 -3245.15 7082.27
12.4884 -2518.8 5735.05
15.8691 -2863.64 7290.14
35.1425 -3013.61 7175.52
28.5075 -2318.01 5818.92
34.1019 -2678.22 6961.94
8.69047 36.4755 1756.43
20.77 -1500.86 2710.55
43.0092 -2294.24 5643.55
58.9895 -1820.13 7720.44
28.2982 -75.1618 3686.2
73.8568 -2766.99 7142.57
73.8762 -2631.7 7143.13
65.8294 -1860.25 6355.44
81.4721 -1873.73 7857.58
60.0404 -1270.29 5785.66
75.898 -1525.95 7314.14
39.0352 -569.205 3752.8
41.4296 -582.328 3983.11
95.6549 -2657.79 7321.79
82.8135 -2059.58 6333.79
98.9538 -1513.2 7548.18
54.0038 -308.567 4106.17
20.5683 -87.5436 1558.25
99.5906 -2238.57 6306.83
122.823 -1575.54 7754.35
64.5316 -805.554 4069.52
111.478 -2366.66 6023.46
138.637 -2780.24 7491.66
143.443 -2244.12 7740.39
34.7203 -532.981 1866.75
32.1341 -460.219 1726.28
109.611 -1392.61 5905.08
146.911 -1650.58 7912.34
130.697 -2368.71 6156.39
59.4365 -1204.57 2474.44
154.343 -1953.51 6436.25
184.62 -1959.29 7691.83
164.237 -2235.12 6156.09
55.6645 -553.172 2076.74
92.7445 -618.982 3458.79
161.625 -2444.62 5497.36
164.198 -2346.78 5585.82
218.782 -2580.26 7441.36
229.809 -2157.36 7805.74
107.651 -641.983 3643.26
231.128 -2514.43 7195.11
190.532 -1491.82 5917.72
252.187 -1568.72 7825.83
107.066 -620.659 3316.45
132.417 -431.142 4097.38
206.872 -2349.33 5938.24
223.474 -2206.33 6411.88
222.941 -2061.8 6394.1
223.899 -1773.46 6415.26
134.692 -625.152 3845.63
98.5816 -1345.42 2615.08
222.047 -1309.71 5892.91
218.699 -1194.93 5801.69
297.09 -3419.53 7374.74
228.61 -2276.24 5675.21
241.566 -1589.58 5984.14
321.037 -1592.2 7943.39
163.295 -655.486 4032.76
44.332 375.897 1092.86
261.729 -2308.61 6085.98
46.8591 93.5462 1076.29
263.966 -2550.94 5772.26
265.55 -2297.68 5807.54
282.044 -2171.93 6166.16
274.373 -1410.97 5983.59
359.163 -564.971 7811.22
271.13 -2533.87 5594.83
310.839 -1962.49 6409.03
301.588 -1650.07 6212.4
21.5553 -85.2562 435.196
201.872 -741.773 4147.07
381.29 -1569.76 7428.66
341.099 -2194.28 6327.19
415.056 -1601.53 7678.05
68.9252 57.612 1264.41
335.059 -2325.49 5918.65
422.283 -1896.02 7444.09
417.088 -1692.33 7348.17
236.139 -526.952 4147.4
90.4872 32.8666 1582.16
337.629 -2468.02 5689.91
379.762 -2079.57 6395.97
464.647 -1394.06 7802.05
239.757 -334.611 4015.07
382.916 -2256.66 6169.71
399.81 -1690.23 6429.92
361.424 -2389.59 5579.08
366.936 -2256.54 5664.5
511.981 -1514.5 7877.15
408.909 -2330.86 6058.12
493.91 -2636.24 7317.55
484.021 -2563.95 7170.63
496.538 -1829.82 7340.7
424.711 -2303.62 5822.68
467.669 -2187.81 6409.05
467.981 -1857.67 6407.17
547.54 -1581.31 7484.49
541.043 -2770.69 7152.47
530.007 -2657.01 7006.03
535.286 -2452.54 7073.34
572.481 -1779.11 7548.4
593.651 -1418.04 7818.28
462.058 -2716.99 5892.2
438.846 -2565.27 5596.05
576.117 -1668.26 7331.11
319.245 -592.069 4051.48
519.74 -1733.41 6397.11
646.576 -616.757 7930.7
319.734 -2100.4 3795.21
482.179 -2635.55 5749.5
632.593 -1918.13 7532.28
641.364 -1590.91 7628.82
485.145 -2248.17 5605.22
554.294 -2045.97 6399.85
356.807 -722.66 4103.85
652.506 -3289.42 7309.27
667.821 -3285.23 7482.12
621.19 -2809.77 6960.34
637.824 -2593.48 7145.3
661.718 -1803.44 7396.98
701.36 -1505.42 7831.6
379.614 -664.44 4231.83
363.058 -458.456 4043.85
660.716 -3388.56 7178.94
617.222 -2818.73 6710.71
682.585 -1563.07 7399.26
711.08 -1481.13 7705.3
603.799 -1025.57 6536.76
720.084 -1137.91 7795.75
709.196 -827.11 7672.94
720.572 -691.227 7794.2
710.476 -1661.8 7482.39
732.546 -1671.35 7714.16
63.4704 -117.468 659.871
168.279 -209.95 1762
673.578 -2622.17 6914.29
740.875 -1477.66 7580.39
735.68 -830.603 7515.45
727.466 -679.165 7429.54
773.029 -613.795 7894.17
712.708 -2466.83 7115.2
640.962 -1905.15 6392.91
644.094 -1669.56 6419.12
733.885 -1663.13 7309.94
741.316 -814.223 7367.33
763.434 -672.642 7585.21
831.512 -710.04 8262.11
125.752 435.657 1248.29
787.944 -1905.07 7645.03
812.561 -1191.14 7867.93
740.41 -2754.84 7013.27
742.337 -2609.04 7030.77
280.614 -306.782 2639.89
691.015 -2176.76 6377.49
844.509 -1981.64 7783.57
291.088 -529.531 2673.86
227.163 -373.311 2083.93
109.347 -176.951 998.569
756.515 -2806.51 6814.22
804.318 -2609.49 7244.06
457.96 -599.526 4104.2
852.475 -948.932 7644.49
870.192 -926.02 7802.89
817.595 -689.794 7328.25
223.752 -150.409 1998.8
727.46 -1781.86 6385.97
865.133 -1788.1 7589.2
878.846 -1165.02 7696.34
220.848 -271.64 1927.17
865.928 -837.324 7578.05
829.639 -2546.49 7122.75
901.483 -3279.82 7563.43
880.057 -3181.78 7383.68
829.676 -2848.17 6961.54
759.772 -2018.74 6369.73
888.259 -1833.15 7438.25
889.309 -800.373 7427.44
134.571 278.084 1119.54
810.823 -2793.68 6650.69
897.378 -1630.45 7343.17
970.957 -1655.82 7943.69
337.213 -341.854 2748.83
181.278 58.8795 1472.36
863.532 -2665.35 6929.21
952.271 -1879.43 7626.72
306.128 -417.132 2442.05
737.615 -2763.64 5784.38
988.382 -853.624 7727.36
966.244 -669.424 7551.99
1024.85 -1423.75 7854.77
950.91 -804.08 7278.69
960.525 -671.624 7350.58
206.406 -109.798 1572.38
897.97 -2803.56 6762.02
845.687 -1878.23 6361.84
1043.77 -1933.38 7846.59
538.526 -721.777 4038.6
1046.26 -952.292 7846.69
955.773 -2598.02 7053.12
1055.22 -1195.3 7759.38
107.078 -61.1196 778.729
147.288 477.569 1079.28
881.934 -1673.4 6369.75
819.816 -1087.78 5911.14
1067.77 -954.61 7693.53
548.986 -2144.35 3871.62
584.746 -2126.08 4134.04
996.399 -2450.07 7067.95
897.095 -2102.03 6361.5
1046.36 -1664.41 7407.41
1054.53 -822.841 7450.09
159.839 -90.7967 1121.47
1010.25 -2781.31 7032.01
1116.31 -2101.27 7760.64
260.969 -431.953 1806.47
1101.16 -1468.27 7643.3
920.54 -2743.73 6285.35
1089.47 -2538.85 7441.04
1216.31 -2359.92 8301.53
386.538 -656.624 2630.54
418.863 -695.973 2850.94
222.09 -315.384 1506.49
1076.13 -788.493 7320.39
974.318 -2779.95 6532.37
1029.72 -2599.98 6905.73
1067.83 -2598.83 7161.22
1124.72 -2347.54 7539.06
161.028 -303.794 1071.42
247.091 -335.47 1646.18
1120.92 -663.213 7484.73
377.783 -189.072 2516.48
1012.97 -2765.87 6670.68
237.144 -507.338 1554.54
379.3 -743.524 2490.63
212.913 -177.107 1389.92
619.209 -2118.57 3987.54
1059.21 -2822.57 6852.71
1085.98 -2588.16 7026.6
1180.89 -1152.01 7615.12
1208.77 -1115.41 7794.11
266.833 -128.842 1712.25
1139.09 -2076.86 7236.44
1247.02 -2101.12 7919.89
205.255 576.957 1297.39
860.484 -2726.92 5361.76
1114.9 -2699.36 6968.49
1150.32 -2472.26 7188.87
417.024 -811.207 2599.69
408.974 -503.58 2544.19
1174.36 -647.566 7309.46
1197.42 -2510.45 7358.25
447.614 -848.669 2744.16
1267.93 -2043.72 7783.34
680.78 -721.841 4168.09
1288.16 -1322.79 7893.74
1237.88 -2532.24 7481.81
1261.73 -2539.54 7625.69
131.32 -240.568 785.617
1241.29 -2192.33 7498.09
1211.67 -1661.98 7310.58
1236.49 -1655.38 7459.78
1273.84 -1684.44 7684.99
290.309 -259.806 1742.51
1259.1 -837.039 7582.21
208.955 46.574 1250.25
93.1872 -184.527 546.058
1120.14 -2771.04 6552.9
1198.41 -2831.16 7012.76
387.345 -699.317 2259.84
364.432 -640.55 2125.41
549.879 -887.742 3210.17
367.662 -418.025 2140.39
718.787 -2155.66 4121.77
971.121 -2745.07 5580.3
1206.37 -2597.41 6949.23
1225.01 -2445.65 7056.03
333.341 -613.272 1913.25
1307.64 -1852.67 7522.32
1409.38 -1466.93 8098.76
1285.64 -774.211 7378.42
1186.18 -2788.96 6725.78
349.577 -245.009 1969.54
1365.08 -851.475 7714.78
529.033 -823.183 2947.32
1342.7 -682.023 7471.48
1470.6 -635.302 8182.9
731.629 -2216.05 3997.69
972.927 -2917.8 5321.28
999.877 -2863.99 5478.08
1335.87 -3326.71 7343.1
1291.85 -2598.56 7107.62
306.632 -529.624 1679.84
1393.56 -1281.07 7647.03
1353.85 -981.234 7424.85
1366.37 -826.76 7491.43
109.36 -318.297 581.906
1153.01 -2760.98 6244.61
1182.23 -2778.67 6404.17
1291 -2729.84 6997.79
1355.52 -2126.92 7343.49
1386.74 -1644.4 7504.19
1388.95 -1258 7509.54
1365.2 -1176.12 7380.02
1027.29 -3021.12 5452.38
1456.3 -2167.21 7774.27
1381.96 -1775.53 7372.52
1394.27 -1426.76 7432.04
1363.48 -2449.06 7178.84
1437.21 -2087.58 7562.1
1394.98 -608.048 7318.47
221.262 385.128 1157.61
83.6219 -233.072 423.687
1430.58 -2230.36 7423.35
1414.27 -1526.13 7328.25
445.806 -1250.07 2262.18
1325.92 -2942.79 6782.29
1284.18 -2814.39 6569.2
1351.43 -2830.09 6915.7
1440.76 -1934.17 7368.33
1435.9 -1348 7334.03
1436.95 -808.917 7331.63
259.078 348.23 1317.87
1381.53 -2608.93 6879.62
1475.73 -968.119 7328.28
1361.87 -2864.96 6686.89
1418.84 -2719.38 6970.55
1455.84 -2595.78 7153.31
1497.52 -1649.61 7347.85
1510.52 -533.665 7396.52
299.05 477.738 1462.29
1121.76 -2772.44 5416.57
1443.06 -2596.12 6996.65
1454.28 -2462.92 7051.18
1505.93 -2371.67 7301.04
1512.94 -2063.53 7331.9
1523.55 -1455.25 7374.08
1531.54 -857.057 7404.15
343.219 627.051 1657.45
1418.05 -2794.73 6783.16
1537.43 -1809.53 7350.23
1561.07 -1309.15 7455.26
1532.95 -1145.92 7318.74
1571.86 -1072.73 7503.27
1580.45 -852.345 7541.48
294.404 626.648 1400.41
319.755 684.768 1521.63
1544.63 -2231.18 7295.25
1543.41 -1932.01 7286.1
1598.06 -1856.72 7542.39
1590 -1479.68 7498.69
1606.14 -1370.9 7573
1642.42 -1106.47 7740.01
854.591 -520.833 4022.45
1639.35 -872.745 7722.64
324.331 -101.834 1520.24
1658.73 -2428.71 7735.92
1594.87 -2274.52 7437.24
1619.82 -2145.74 7552.05
1671.91 -1917.87 7791.34
1607.82 -1660.81 7489.6
302.842 240.296 1402.58
1613.47 -3969.68 7389.17
1432.54 -2788.91 6592.86
1517.95 -2822.12 6988.73
1600.18 -750.375 7348.77
1599.73 -609.916 7345.42
1618.16 -373.739 7428.4
346.936 19.8099 1585.64
246.552 109.805 1124.89
265.791 231.557 1214.8
328.814 327.644 1505.52
1215.5 -2863.33 5501.42
1375.01 -2728.82 6247.18
1671.1 -2386.25 7600.73
1590.43 -1661.2 7226.35
400.182 -269.488 1809.66
1623.85 -229.808 7362.07
292.04 128.454 1317.49
361.247 203.579 1632.24
1568.69 -2595.98 7047.81
1768.84 -1954.63 7941.67
1447.31 -1298.71 6492.22
1154.27 -1021.65 5175.77
872.496 -761.594 3910.02
1677.29 -50.0249 7511.64
329.332 126.99 1468.49
1557.44 -2659.02 6911.74
1617.11 -2585.22 7177.91
1607.77 -2453.85 7136.52
1641.87 -2486.07 7288.02
577.985 -477.495 2555.73
1669.84 -512.797 7390.17
1688.7 -2365.34 7406.09
1697.37 -1972.6 7440.6
540.035 -324.883 2357.33
1685.91 -69.1895 7370.88
1748.53 115.929 7645.03
409.844 66.2779 1785.41
1544.66 -2775.27 6689.97
1792.21 -2016.01 7763.8
1956.95 -2132.13 8477.4
641.232 -494.579 2769.19
1726.37 -802.512 7463.61
1803.63 181.945 7793.76
1772.48 -2011.88 7589.35
347.9 -810.96 1454.88
1863.79 -1361.49 7879.58
1795.49 -1228.9 7589.44
380.706 -186.047 1601.5
1738.18 -649.285 7340.97
1740.41 -369.557 7348.49
1796.92 -9.12445 7586.4
1875.06 400.697 7917.71
154.669 38.3954 645.183
884.542 -1977.98 3674.8
1774.66 -3281.58 7418.49
1539.43 -2776.51 6436.06
1678.26 -2434.67 7025.01
1934.49 452.731 8076.55
1343.6 -2955.56 5524.1
1688.19 -2763.5 6984.13
424.466 -570.623 1750.24
1816.9 -2197.12 7519.01
1765.48 -1658.04 7301.02
1805.4 -1634.57 7465.55
1781.8 -209.389 7354.15
1746.37 -3818.19 7100.28
1345.74 -2732.59 5484.02
1426.48 -2737.77 5821.72
1773.89 -3226.84 7248.59
1531.32 -2734.46 6257.81
1710.05 -2577.8 6997.82
1745.68 -2573.22 7144.18
495.61 -565.072 2021.67
688.703 -677.915 2811.6
661.704 -319.929 2697.02
603.316 -1344.39 2416.5
1827.3 -69.2108 7376.56
1909.46 -9.26882 7708.6
2034.07 460.308 8213.46
173.599 -376.952 681.978
1815.18 -2459.27 7267.37
1850.37 -1902.58 7405.36
1843.12 -510.518 7361.47
1355.71 -2722.23 5340.82
392.76 -505.241 1548.72
324.734 -407.242 1278.97
1912.15 -791.652 7557.65
1992.27 33.4514 7870.79
711.673 96.2618 2806.16
100.112 28.6362 387.364
1853.01 -3898.32 7208.02
1896.72 -3970.08 7379.98
1703.31 -2802.98 6666.26
1734.64 -2817.56 6789.93
1943.56 -1935.08 7612.88
1935.27 -1638.14 7577.31
1888.53 -713.168 7384.42
1890.79 -331.234 7390.89
1936.18 -29.7283 7567.78
312.046 520.546 1213.98
1948.89 -2330.85 7555.98
1050.98 -858.069 4067.45
1671.82 238.988 6465.17
1434.57 -2835.28 5470.05
1706.28 -2784.85 6536.74
1794.96 -2667.42 6882.72
1839.42 -2426.43 7056.38
322.941 -233.959 1230.49
1972.87 -1202.87 7558.92
1735.05 245.437 6640.29
1771.27 -3684.03 6666.97
1643.86 -1314.4 6235.65
1922.18 -425.531 7282.46
1941.24 -189.229 7353.85
1842.42 -46.4351 6978.86
1783.94 -26.5419 6757.04
1775.06 120.21 6723.45
1789.65 361.415 6779.58
1787.7 527.144 6773.12
1965.19 -1635.59 7381.01
1737.85 -1322.06 6524.84
1790.15 -1325.26 6721.06
1856.35 -1279.41 6968.88
1752.17 -1046.45 6575.53
2046.99 -1201.61 7683.17
1952.76 -607.485 7324.24
1920.4 -538.541 7202.33
1843.4 -385.077 6912.45
1875.38 -238.436 7031.93
1855.62 -3706.25 6848.48
1650.92 -2679.48 6128.94
1845.73 -2883.63 6856.73
1873.91 -2794.97 6964.89
1901.76 -2567.16 7072.74
1836.71 -1253.07 6825.48
1802.83 -1065.81 6697.66
1803.21 -938.35 6697.78
1819.78 -726.064 6757.35
1898.87 -3830.7 6930.1
1885.7 -2331.13 6943.85
1830.43 -2226.14 6740.2
1840.33 -1685.28 6774.91
1835.04 -559.422 6744.89
1835.98 -173.589 6746.62
1949.89 -3855.94 7048.61
1546.82 -2706.1 5615.89
1818.47 -2856.8 6618.18
1891.55 -2502.72 6894.69
1840.64 -2088.6 6710.7
1848.85 -1437.97 6736.75
221.55 -435.99 784.997
1861.99 -1890.99 6721.49
1887.89 -434.481 6802.95
1895.54 -287.36 6829.91
1869.23 248.834 6734.88
1900.57 420.942 6848.62
1547.35 -2910.11 5489.35
1897.88 -1022.99 6777.3
1997.6 -358.15 7128.65
2036.62 -206.741 7267.59
1908.49 47.4826 6809.6
2277.38 211.652 8127.71
1784.6 -2808.48 6302.33
1902.92 -2426.68 6735.19
1897.14 -1195.41 6711.33
1871.86 -800.99 6618.36
1939.34 -736.496 6856.49
2075.1 -688.152 7336.36
2183.88 621.566 7720.71
1534.2 -2742.53 5344.33
1685.73 -2724.02 5890.96
1759.48 -2776.07 6152.2
1943.27 -2639.81 6809.27
1948.05 -2293.32 6830.66
1943.64 -2065.69 6815.89
1899.34 -1765.02 6659.73
1906.1 -1589.52 6682.35
2046.41 -1589.43 7173.99
1961.92 -1505.1 6877.3
2082.93 -1121.18 7297.69
2228.51 -1093.27 7807.38
2186.61 -1031.01 7660.06
2090.04 -527.033 7318.09
2101.99 -68.9794 7358.51
509.599 167.956 1777.99
1738.35 -2749.67 6018.73
1934.42 -2877.07 6706.14
1978 -2885.82 6859.29
1998.07 -2141.22 6940.66
2084.43 -2155.01 7241.08
2283.94 -2123.94 7934.44
2197.28 -1192.3 7626.48
447.52 598.453 1546.61
2025.64 -2529.57 6967.62
2033.17 -2348.71 6995.6
2152.91 -2164.66 7409.12
495.624 -433.395 1698.79
2169.46 -1734.65 7464.29
160.188 -71.1179 542.635
2128.15 -287.604 7311.84
2229.61 115.99 7660.45
2187.71 523.272 7517.62
1905.97 -2870.5 6480.23
2050.1 -2783.46 6981.19
2090.97 -2567.54 7125.86
2249.36 -1802.71 7667.95
2228.33 -1620.58 7595
2316.36 76.4334 7885.39
1941.67 352.103 6609.13
1946.67 695.928 6628.04
2221.22 -1927.04 7503.26
2157.86 -1634.2 7287.65
2234.24 -1014.74 7540.52
2193.76 -754.524 7401.94
1993.91 -44.7104 6724.4
1940.02 134.713 6542.53
1954.5 512.761 6592.75
1658.33 -2723.77 5518.36
2175.74 -2464.53 7281.34
2459.7 -1017.4 8226.32
2097.38 -733.897 7012.33
2151.53 -674.507 7193.1
2150.74 -419.755 7189.15
2135.23 -300.112 7136.83
2128.87 -163.571 7115.24
411.351 365.295 1369.85
2089.04 2881.99 6980.64
1526.23 -2731.99 5010.99
2148.22 -2353.26 7124.52
2282.96 -2233.15 7573.19
2113.2 -1133.06 7004.76
2129.85 -930.656 7058.41
2092.71 -857.795 6934.76
2118.19 -581.635 7017.46
2087.92 -479.153 6916.57
2122.26 -410.459 7030.14
2100.12 -216.737 6956.11
2186.85 -87.6042 7243.53
1966.83 -43.3071 6513.85
1956.55 574.631 6481.51
452.567 459.504 1494.29
2116.51 -2638.37 6951.2
195.674 -194.941 635.342
2132.33 -1552.46 7008.22
2076.39 -1233.3 6822.22
2100.51 -627.955 6897.18
1969.64 291.571 6465.57
1967.82 449.628 6460.21
1960.58 710.879 6437.89
2154 2725.89 7073.57
1511.12 -2710.53 4866.1
1770.32 -2783.31 5735.87
1818.86 -2762.93 5899.32
1866.35 -2802.01 6055.44
1939.59 -2826.03 6297.8
2025.73 -2861.8 6581.96
2131.2 -2916.38 6928.8
2153.27 -1973.55 7015.75
2205.84 -1845.83 7187.02
2133.9 -1747.82 6952.23
495.647 208.863 1606.89
2194.7 2558.31 7146.91
2209.66 2693.22 7193.54
2209.62 2888.95 7188.52
2282.1 3044.37 7422.71
2158.38 -2472.67 6966.71
2148.99 -2197.68 6939.28
2124.25 -1892.53 6860.19
1968.24 96.0948 6347.62
1955.07 353.01 6305.66
1955.42 490.464 6307.39
1950.4 660.501 6292.12
2175.4 2188.73 7024.89
2181.04 2366.8 7041.69
156.807 186.688 497.964
1626.88 -2697.36 5163.04
2113.74 -2860.5 6750.38
2156.61 -2787.08 6892.08
2143.98 -325.549 6855.68
2164.58 -83.6908 6921.15
2286.81 2678.96 7315.66
2290.89 2962.97 7321.69
262.693 351.195 831.493
2152.12 -2404.34 6826.14
2148.83 -1436.25 6818.45
2154.07 -1086.51 6832.9
2152.57 -918.55 6827.03
1963.46 822.904 6226.39
2277.4 1701.41 7227.72
2249.35 1913.42 7139.06
2179.59 2117.44 6916.71
2181.97 2270.42 6923.1
317.182 425.854 996.716
1723.09 -2748.98 5378.57
2162.06 -1728.73 6802.8
2175.6 -734.26 6840.16
1970.03 -41.1493 6190.97
1980.15 145.026 6222.92
1969.13 279.018 6188.52
471.686 216.176 1476.55
66.7817 43.7499 201.683
2317.09 2826.58 7281.14
431.604 604.065 1346.26
1796.34 -2780.56 5564
2177.42 -2686.89 6781.59
2178.72 -2189.4 6795.31
2223.65 -574.309 6931.45
2236.26 -425.779 6970.18
2247.97 -275.428 7006.29
2275.85 -124.371 7093.03
2329.96 -87.7911 7261.85
1965.33 476.21 6125.08
1967.84 660.474 6133.83
2365.74 1456.4 7379.8
2348.18 1624.89 7325.8
2224.3 1935.47 6939.34
2176.58 2189.42 6788.58
2179.47 2358.75 6795.5
2319.22 2588.71 7230.44
216.651 287.779 666.209
2202.13 -2046.08 6811.52
2208.1 -1289.98 6829.27
2234.4 -854.199 6908.11
2302.44 -531.543 7116.98
2320.23 -281.889 7171.22
1984.38 1111.17 6136.2
2182.83 2048.68 6751.65
2148.92 2197.64 6644.93
2243.97 2464.75 6936.64
1548.1 -2614.61 4687.84
1980.37 -2716.85 6050.03
2240.33 -1559.56 6872.41
2255.63 -1175.03 6917.63
2262.12 -989.681 6936.47
2294.88 -908.288 7036.52
2300.77 -757.061 7053.77
2383.79 -406.518 7307.01
1988.14 125.378 6092.33
2156.95 2331.4 6611.6
2417.59 3258.54 7390.62
1913.33 -2777.28 5785.25
2046.85 -2767.87 6201.8
2258.47 -1820.77 6870.93
2281.1 -1367.19 6938.97
2310.4 -1250.94 7027.56
2350.6 -1194.91 7149.6
2331.01 -1030.67 7089.09
2397.21 -564.092 7288.2
2006.37 955.485 6100.97
2148.06 2018.22 6533.25
2131.17 2319.73 6477.33
2408.08 2720.76 7317.87
2399.41 3147.71 7276.33
2501.07 3405.24 7578.78
1974.93 -2762.14 5927.26
2182.67 -2873.58 6561.6
2254.95 -2524.64 6795.28
2265.34 -2294.62 6831.41
2313.31 -1697.81 6980.18
2336.96 -1504.23 7051.23
2356.05 -1342.51 7108.22
2412.11 -1196.32 7276.71
2381.6 -946.676 7183.33
2365.41 1796.57 7137.6
2199.1 1940.93 6634.35
2143.95 2138.56 6465.36
2417.91 2947.52 7279.71
1638.72 -2686.7 4840.08
2142.35 -2832.4 6385.26
2321.26 -2332.12 6942.9
2331.15 -2114.38 6975.2
2358.44 -2004.76 7057.87
2326.73 -1902.06 6963.19
2395.56 -1704.87 7169.74
2411.34 -1441.34 7216.38
2462.43 -89.0045 7364.23
2141.09 1944.04 6405.78
2120.24 2201.22 6339.69
2351 -2456.8 6972.72
2428 -1067.13 7206.04
2459.9 -266.928 7297.72
2107.66 2306.62 6247.75
1598.23 2187.79 4716.97
1726.74 -2757.99 5019.84
1923.46 -2779.52 5620.44
2283.02 -2823.73 6701.57
2407.77 -2303.14 7086.97
2446.69 -1576.19 7205.35
2454.68 -755.685 7225.68
2093.34 747.009 6161.19
2466.52 1571.54 7263.78
2126.05 2103.77 6255.66
2513.41 2789.01 7390.27
2474 2824.53 7271.86
2038.57 2735.55 5971.93
1797.64 -2805.56 5188.38
2361.69 -2672.66 6885.66
2476.33 1761.99 7234.81
2513.64 3306.29 7308.51
2476.75 -2019.4 7177.84
2481.03 -1846.88 7191.07
2490.04 -126.417 7213.05
2093.27 -23.7757 6062.28
2109.05 291.9 6108.37
2413.59 1932.09 6994.77
1565.15 2165.84 4502.83
2346.3 -2687.09 6729.82
2453.83 -2426.43 7049.63
2497.87 -887.673 7181.46
2508.17 -557.875 7209.91
2120.35 888.127 6095.29
2108.26 1179.84 6061.46
2362.78 1932.05 6793.18
2129.04 2040.63 6116.62
2122.14 2183.38 6093.65
2548.31 3159.94 7299.29
1891.9 -2781.13 5340.99
2285.55 -2792.28 6495.14
2305.84 -2673.92 6559.44
2520.01 -419.274 7187.58
2135.09 622.274 6089.19
2125.44 1031.79 6063.09
2566.44 1445.01 7323.38
2106.34 2346.44 5994.9
2517.32 -2179.49 7124.44
2529.15 -1138.11 7160.57
2139.23 437.483 6053.58
2125.86 778.501 6016.8
2512.11 1887.11 7112.21
2305.97 1927.57 6526.33
2104.5 2196.69 5947.13
2543.14 2889.54 7180.41
128.06 216.499 346.836
1979.56 -2729.37 5513.64
2127.03 -2786.42 5936.27
2277.41 -2704.99 6373.18
2144.53 140.254 6021.82
2603.07 766.954 7312.57
2600.83 925.282 7306.81
2592.97 1100.8 7285.26
2598.82 1262.15 7302.16
2120.75 2050.88 5950.53
2096.45 -2773.22 5802
2201.86 -2795.78 6102.39
2253.08 -2775.38 6249.84
2506.88 -2555.73 6977.75
2558.84 -1541.48 7135.41
2564.02 -1311.28 7149.75
2572.61 -262.214 7171.08
2613.54 486.733 7285.72
2595.66 1664.4 7238.1
2211.41 1937.87 6161.26
2609.24 3038.37 7248.57
2058.56 -2764.55 5648.2
2627.41 50.602 7268.9
2615.24 286.557 7235.37
2613.27 620.691 7230.6
2593.12 1786.87 7175.96
2612.1 3215.38 7190.2
1584.96 2201.51 4340.41
2261.61 -2642.88 6183.72
2586.73 -1882.79 7103.87
2606.87 -982.229 7160.07
2606.9 -806.984 7159.7
2611.54 -632.851 7172.01
2311.27 1926.04 6343.9
2107.98 2181.78 5775.22
2097.61 2374.74 5738.52
2573.37 3201.7 7025.82
2524.91 -2629.16 6865.93
2589.69 -2389.39 7051.37
2619.38 -1756.47 7140.88
2633.23 -106.229 7177.32
2541.27 1932.42 6925.98
2207.82 1957.14 6012.02
2616.82 3095.79 7098.9
1552.38 2181.82 4180.66
1823.54 -2716.93 4855.37
1943.23 -2780.86 5188.27
2236.71 -2657.6 6019.1
2499.43 -2675.43 6742.14
2624.26 -2094.43 7098.1
2670 1386.53 7226.22
2671.21 1544.44 7229.33
2101.45 2251.26 5667.15
2591.49 3005.1 6979.52
1898.68 -2752.72 5024.45
2349.14 -2633.48 6282.66
2657.51 -1425.91 7139.66
2485.44 1934.97 6673.11
2169.22 1974.05 5817.74
1781.82 2194.3 4751.31
2676.63 -1212.2 7138.92
2695.85 1008.13 7190.02
2451.53 1930.28 6533.31
2114.3 1986.79 5626.55
2099.98 2156.11 5582.16
2596.93 3118.38 6881.29
2486.81 -2658.11 6558.21
2660.32 -2537.07 7028.48
2681.06 -2209.35 7092.01
2683.85 -1979.75 7102.91
2706.84 498.176 7166.56
2706.55 829.438 7166.34
2695.41 1175.38 7137.2
2682.86 1710.83 7102.66
2654.35 1902.89 7025.34
2103.88 2356.64 5541.47
1759.95 2212.17 4617.8
2226.4 -2728.83 5805.04
2449.32 -2634.33 6410.43
2725.37 -339.826 7163.98
2718.75 127.487 7146.39
2719.39 341.374 7148.24
2710.09 650.207 7124.18
2583.02 3075.78 6742.94
1554.05 2206.04 4019.51
2075.26 -2775.95 5348.09
2135.57 -2780.83 5511.41
2734.17 -513.176 7136.36
2696.92 1063.62 7039.64
2716.77 1341.43 7091.35
2689.16 1537.78 7018.57
2597.03 1927.53 6773.95
2102.14 2082.49 5468.08
2201.58 -2753.46 5649.39
2280.02 -2594.43 5870.59
2641.77 -2540.56 6826.97
2745.24 -1672.59 7113.72
2750.3 -958.422 7128.43
2743.31 -665.948 7110.01
2754.44 -27.976 7138.37
2692.31 940.453 6977.95
2362.53 1940.94 6114.08
2089.15 2231.73 5387.01
2077.6 2409.75 5345.55
2757.12 -818.99 7095.97
2730.52 -180.427 7026.88
2712.95 10.6144 6981.57
2722.14 239.278 7005.31
2733.48 431.592 7034.68
2696.72 595.657 6940.13
2691.39 782.851 6926.58
2694.1 1141.9 6933.61
2694.77 1293.07 6935.1
2678.29 1678.82 6890.69
2675.4 1826.81 6881.75
2477.97 1934.81 6369.61
1745.12 2205.37 4440.52
2373.19 -2596.92 6028.06
2472.11 -2481.8 6291.75
2574.97 -2531.37 6556.33
2770.38 -1510.39 7079.48
2763.12 -1314.39 7061.63
2777.13 -1108.73 7097.82
2736.23 -369.725 6992.81
2664.42 954.805 6809.45
2678.27 1406.52 6844.05
2092.82 2102.74 5325.01
1520.28 2182.61 3807.26
2273.82 -2612.24 5724.78
2642.42 -2525.02 6683.3
2778.09 -2098.57 7043.17
2741.29 -784.119 6957.67
2746.27 -558.075 6970.19
2696.58 47.6302 6843.67
2686.05 344.085 6817.02
2670.61 637.044 6778
2662.43 1112.9 6757.14
2664.71 1573.67 6761
2662.28 1774.37 6752.83
2460.93 1945.92 6236.31
2351.18 1956.52 5955.45
2060.49 -2774.67 5108.57
2552.62 -2509.96 6406.85
2783.64 -2298.24 7003.47
2799.33 -1965.79 7050.2
2786.03 -1784.56 7018.95
2760.4 -1200.47 6957.81
2705.36 -100.905 6818.93
2704.55 195.761 6816.92
2679.17 469.41 6753
2627.29 1252.77 6621.56
2656.91 1394.38 6695.74
2609.71 1924.19 6570.49
2074.47 2169.47 5198.35
2076.79 2342.74 5193.11
1714.92 2228.42 4259.89
1480.17 2237.91 3630.98
2483.68 -2577.73 6182.2
2470.33 -2446.14 6155.27
2780.95 -2450.78 6943.07
2792.88 -1624.65 6989.44
2762.58 -967.53 6916.09
2725.12 -787.43 6822.27
2742.45 -661.737 6865.7
2722.72 -508.678 6816.18
2722.15 -341.772 6814.67
2693.68 -228.16 6743.26
2671.15 46.5382 6686.76
2664.68 753.962 6670.75
2649.02 875.781 6631.48
2647.99 1019.67 6628.73
2641.35 1502.66 6610.04
2646.96 1758.15 6621.41
2281.61 1981.5 5695.83
2158.85 1977.76 5385.18
2091.68 2001.68 5213.77
2211.07 -2682.97 5433.62
2426.55 -2452.17 6000.75
2776.14 -1510.11 6900.9
2760.57 -1314.97 6863.23
2751.55 -1124.61 6841.44
2700.25 -701.925 6714.13
2678.4 -116.659 6659.57
2671.55 317.216 6642.58
2660.15 459.772 6614.26
2637.01 1383.04 6554.97
2237 1990.12 5543.73
2780.38 -2323.97 6849.88
2801.45 -2172.23 6906.65
2801.46 -1965.25 6911.16
2750.6 -931.909 6793.28
2699.55 -388.775 6667.18
2653.43 598.108 6553.16
2641.44 737.343 6523.49
2621.33 872.584 6473.64
2625.87 1755.97 6478.89
2357.24 1972.16 5806.04
2054.3 2298.24 5028.18
1986.88 2236.15 4861.82
2051.22 -2770.54 4933.32
2293.58 -2592.91 5572.69
2784.12 -2460.17 6807.23
2769.32 -1837.35 6787.22
2779.42 -1658.61 6814.56
2746.58 -1474.09 6735.55
2745.15 -1271.85 6733.35
2726.15 -1135.73 6687.22
2725.35 -1008.11 6685.6
2709.19 -821.375 6646.2
2714.04 -551.225 6658.24
2683.93 -258.596 6584.26
2655.3 151.632 6513.92
2652.1 293.008 6506.08
2639.28 432.464 6474.6
2637.62 1012.93 6470.02
2625.56 1165.96 6439.85
2628.21 1587.98 6443.1
2613.69 1875.67 6402.72
2074.39 2152.98 5053.36
1930.24 2196.55 4687.32
2747.63 -2648.56 6661.49
2754.62 -2034.56 6701.48
2679.5 -434.048 6529.76
2647.2 -60.3721 6450.93
2636.6 568.957 6425.04
2624.7 1366.6 6393.52
1630.75 2221.72 3888.27
2208.31 -2739.87 5264.74
2456.24 -2578.49 5899.88
2767.87 -2450.03 6674.99
2776 -2256.18 6702.19
2749.74 -1691.7 6651.05
2727.03 -1408.4 6599.04
2725.61 -1264.1 6596.62
2700.51 -1092.44 6536.58
2676.73 -888.962 6479.54
2685.96 -591.389 6502.28
2645 -181.828 6403.05
2630.27 702.395 6367.17
2611.21 1539.73 6316.43
2599.7 1686.99 6286.31
2515.59 1947.11 6075.65
2101.39 2000.07 5058.94
1710.79 2225.3 4063.99
2238.27 -2597.82 5317.13
2723.9 -1540.11 6546.51
2692.93 -747.573 6476.23
2660.34 -320.896 6398.02
2650.45 79.0373 6374.2
2637.5 233.917 6343.01
2637.59 389.198 6343.21
2619.61 1020.53 6298.9
2617.25 1207.93 6292.27
2600.48 1863.56 6242.74
2068 2077.15 4937.88
2757.59 -2319.59 6565.53
2744.64 -2148.18 6540.38
2749.42 -1848.18 6559.66
2707.03 -1221.57 6465.92
2674.07 -998.172 6388.16
2653.4 -490.408 6339.66
2615.44 842.321 6248.33
2613.68 1334.31 6241.43
2598.79 1461.82 6204.39
2465.9 1963.95 5874.16
2205.78 -2626.73 5159.09
2750.45 -1996.75 6515.31
2724.68 -1696.57 6460.31
2701.02 -1472.57 6407.15
2679.87 -1322.62 6358.35
2665.39 -850.831 6326.49
2674.25 -646.464 6347.97
2643.68 -195.284 6275.59
2652.61 -58.9321 6296.84
2632.74 536.447 6249.42
2588.62 1630.54 6136.94
1922.08 2215.89 4502.19
2774.69 -2571.01 6506.85
2747.57 -2422.5 6449.59
2697.67 -1599.75 6355.75
2641.26 77.2467 6229.51
2607.06 1246.95 6145.57
2194.03 -2719.26 5046.31
2452.37 -2586.12 5689.54
2440.29 -2417.84 5673.34
2736.73 -2624.33 6369.38
2717.01 -2085.86 6348.2
2722.07 -1881.53 6366.16
2677.65 -1151.06 6272.56
2654.81 -972.021 6219.98
2636.39 211.05 6178.22
2636.1 345.449 6177.46
2613.36 725.6 6123.55
2614.14 909.108 6124.78
2610.58 1057.63 6115.65
2597.44 1764.23 6075.07
2062.93 2124.4 4788.77
2735.98 -2260.41 6344.54
2693.58 -1696.5 6262.38
2687.46 -1488.39 6251.67
2673.56 -1362.15 6220.84
2663.35 -749.673 6201.05
2650.85 -544.677 6172.35
2642.47 -358.851 6153.01
2637.57 -74.1896 6141.71
2590.36 1551.39 6023.6
2475.2 1968.42 5742.12
2366.84 2002.17 5485.27
1635.53 2222.61 3702.88
2535.82 -2448.92 5821.36
2694.21 -1940.57 6217.28
2623.48 570.629 6069.79
2598.33 1202.95 6008.28
2598.23 1366.43 6006.17
2437.25 1987.39 5614.99
2294.36 2000.84 5279.13
2178.52 -2758.35 4896.5
2368.17 -2583.75 5374.68
2631.61 -2525.53 6002.55
2748.73 -2431.62 6282.96
2671.53 -1260.54 6138.39
2577.37 1685.5 5913.76
2582.11 1898.54 5918.57
2242.38 1999.37 5123.09
2711.26 -2568.93 6145.91
2712.97 -2300.76 6165.96
2702.02 -2089.93 6150.19
2687.41 -1761.26 6127.18
2667.18 -1084.88 6091.4
2654.7 -898.3 6064.08
2630.79 205.363 6011.11
2619.55 416.152 5985.17
2618.68 936.863 5981.39
2456.04 -2585.81 5508.55
2716.41 -2440.45 6125.99
2678.65 -1612.3 6071.89
2670.3 -1409.33 6056.58
2646.52 -759.213 6008.32
2653.75 -630.147 6025.24
2647.28 -268.854 6011.21
2639.03 41.7161 5992.56
2611.61 767.236 5928.88
1938.62 2234.07 4325.41
2175.45 -2676.99 4798.51
2285.23 -2573.59 5072.68
2702.1 -2197.03 6066.99
2689.68 -1906.21 6050.56
2641.57 -428.796 5960.92
2636.57 -120.443 5949.96
2620.63 298.588 5913.8
2615.7 587.074 5902.06
2607.03 1081.29 5879.61
2604.37 1256.06 5871.64
2058.45 2142.76 4586.93
1882.51 2236.98 4162.46
2487.6 -2420.1 5523.26
2673.26 -1752.52 5980.16
2669.43 -1521.98 5977.18
2668.63 -1195.86 5980.53
2593.22 1464.57 5806.55
2577 1832.79 5759.91
2243.95 2006.68 4994.22
2186.33 2021.85 4861.25
2258.93 -2567.89 4943.65
2703.53 -2368.26 5983.31
2650.04 -1003.53 5904.12
2630.62 8.91832 5864.06
2598.66 922.894 5789.99
2577.21 1665.52 5729.65
1627.12 2176.47 3506.71
2186.02 -2562.26 4741.12
2382.85 -2577.51 5195.99
2692.38 -2165.74 5931.74
2682.03 -1995.74 5916.52
2652.85 -806.637 5875.77
2622.51 151.116 5810.39
2611.76 386.656 5786.2
2134.52 2027.33 4680.6
1830.72 2235.4 3955.89
2696.48 -2543.81 5878.42
2675.44 -1834.62 5871.3
2674.62 -1673.8 5874.67
2663.78 -1299.91 5858.92
2649.05 -610.175 5832.77
2639.73 -275.867 5813.12
2594.28 1314.46 5705
2585.61 1526.97 5681.32
2502.88 1988.01 5480.23
2365.37 2006.35 5171.48
1777.56 2242.68 3802.23
2667.93 -1484.86 5828.77
2628.28 -69.5227 5753.31
2616.05 258.02 5726.31
2616.04 538.492 5725.56
2608.86 707.943 5709.01
2602.76 1109.36 5692.08
2561.14 1915.38 5578.78
2086.85 2033.02 4512.7
2661.07 -2543.69 5724.15
2690.24 -2300.78 5807.81
2685.18 -2073.87 5809.9
2653.81 -965.432 5770.8
2579.23 1214.99 5604.79
2058.97 2128.07 4411.39
2703.94 -2442.12 5791.36
2671.82 -1957.04 5750.44
2654.72 -1100.71 5736.64
2653.7 -725.407 5738.02
2641.61 -457.773 5713.12
2622.8 132.135 5673.02
2588.42 907.425 5595.05
2578.8 1420.14 5565.96
2568.52 1762.21 5532.88
2455.2 2002.4 5272.67
2462 -2412.28 5222.33
2527.31 -2446.69 5363.97
2677.58 -2169.13 5716.23
2668.55 -1787.04 5715.38
2659.16 -1625.15 5700.64
2666.86 -1302.14 5725.32
2640.46 -593.953 5676.21
2642.01 -331.481 5680.53
2612.5 406.019 5616.76
2596.36 646.598 5580.93
2565.77 1029.34 5511.51
2546.91 1170.81 5468.72
2573.45 1604.66 5515.6
2633.05 -2534.22 5554.64
2654.71 -871.676 5671.25
2609.28 266.541 5577.18
2588.09 520.335 5530.97
2569.27 1308.74 5481.46
2692.52 -2389.59 5662.45
2671.86 -2046.72 5641.03
2664.84 -1424.82 5650.29
2638.13 -220.351 5606.02
2624.07 23.6617 5576.29
2589.38 143.163 5502.39
2572.19 722.429 5463.43
2573.3 1481.81 5453.04
2326.92 2012.88 4896.5
2669.23 -1910.14 5608.38
2656.28 -1244.04 5602.71
2637.58 -674.071 5570.3
2631.01 -521.091 5557.3
2630.2 -369.678 5556.22
2562.45 465.044 5412.47
2547.19 1722 5356.23
2565.24 1911.22 5385.63
1773.49 2239.21 3612.58
2205.96 -2553.41 4507.43
2444.23 -2563.67 5034.12
2678.18 -2242.47 5573.23
2652.48 -1083.49 5564.7
2562.02 330.466 5380.7
2558.96 944.593 5369.65
2429.16 2007.82 5056.11
2285.19 2019.49 4745.81
2176.71 -2455.72 4428.44
2331.39 -2550.7 4755.84
2421.74 -2387.95 4974.29
2671.48 -1768.5 5552.75
2630.47 -948.747 5488.18
2606.27 -791.846 5439.32
2609.43 -258.741 5449.06
2570.4 811.9 5364.03
2571.49 1075.39 5362.7
2567.33 1365.57 5347.63
2560.49 1551.18 5327.41
2058.82 2066.6 4223.35
2036.03 2205.77 4155.39
1974.87 2240.56 4014.99
2406.92 -2550.41 4890.27
2678.18 -2111.12 5514.92
2667.53 -1574.94 5519.27
2648.1 -1383.83 5484.57
2590.46 -606.864 5376.7
2608.09 -434.069 5414.38
2608.6 -65.4895 5416.39
2581.67 124.913 5360.32
2570.58 1214.25 5326.94
2594.43 -2500.3 5269.5
2689.19 -2349.75 5486.35
2622.45 -1215.3 5403.65
2578.51 573.388 5321.44
1912.07 2370.63 3798.5
2378.54 -2425.67 4783.86
2673.93 -1919.78 5452.2
2638.88 -1717.61 5389.69
2602.99 -1039.49 5335.96
2542.8 1884.17 5180.95
2226.36 2047.93 4503.08
2623.12 -1522.88 5333.85
2590.69 -755.2 5284.38
2570.11 750.887 5242.31
2565.94 878.041 5232.2
2556.97 1102.39 5209.93
2552.22 1284.77 5195.79
2536 1713.62 5145.86
1946.58 2235.08 3849.86
1890.06 2201.7 3732.08
2688.89 -2503.73 5370.61
2600 -193.184 5277.06
2594.01 -20.6634 5265.1
2557.24 1492.23 5169.35
2028.11 2080.37 4024.89
2672.23 -2268.86 5326.77
2674.36 -2064.84 5347.74
2603.66 -908.086 5249.11
2603.28 -364.106 5253.57
2575.12 418.466 5196.34
2618.02 -1337.52 5238.63
2611.15 -577.356 5238.68
2573.94 204.889 5165.87
2548.66 913.553 5108.75
2539.2 1590.44 5069.29
2567.35 -2477.19 5023.48
2662.51 -1874.06 5274.04
2530.01 1727.39 5014.35
2202.36 2054.58 4316.73
2386.35 -2535.3 4605.94
2676.73 -2395.03 5228.18
2638.53 -1675.89 5206.59
2592.44 -482.89 5144.27
2589.71 -146.237 5140.4
2575.32 7.78595 5111.93
2561.74 617.354 5082.01
2555.14 767.775 5067.09
2550.95 1125.22 5051.85
2539.81 1285.14 5025.01
2543.87 1865.03 5004.54
2438.96 2025.55 4778.72
2014.01 2119.23 3889.26
2624.29 -1192.02 5167.41
2613.77 -1018.53 5150.78
2595.91 -662.466 5121.11
2539.54 1455.68 4989.8
2506.99 2003.42 4890.3
2412.06 -2367.41 4627.42
2669.61 -2520.21 5135.96
2668.88 -2076.85 5180.98
2637.65 -1502.16 5154.12
2610.68 -830.288 5119.72
2595.65 -283.882 5095.45
2575.07 131.701 5055.45
2568.56 337.513 5041.91
2525.94 1615.83 4926.84
2396 2032.67 4634.93
2648.91 -1951.65 5121.06
2663.8 -2276.56 5091.6
2551.82 858.601 4948.61
2541.05 1016.4 4924.24
2530.75 1320.41 4894.71
2672.96 -2413.11 5064.1
2646.68 -1790.09 5069.77
2615.26 -1300.6 5032.85
2616.99 -1122.32 5041.92
2563.07 466.436 4948.73
2624.77 -1600.97 5009.95
2593.93 -929.957 4974.7
2590.21 -575.849 4973.25
2577.93 -330.048 4951.7
2576.91 34.5428 4950.69
2573.56 209.751 4943.88
2550.23 715.483 4894.38
2518.82 1722.63 4795.91
2016.07 2086.36 3755.16
2568.53 -2482.03 4785.55
2643.29 -2127.28 4977.97
2635.43 -1928.7 4980.51
2596.36 -750.091 4955.9
2581.72 -180.825 4933.15
2550.9 579.015 4871.2
2523.05 1887.44 4764.34
1982.07 2236.73 3632.69
2412.3 -2531.56 4432.99
2660.16 -2336.6 4958.91
2537.36 1191.17 4805.49
2533.48 1399.48 4789.46
2354.14 -2457.78 4301.39
2616.25 -1436.15 4919.57
2604.62 -1093.95 4910.6
2525.91 1570.47 4739.4
2162.53 2069.46 3982.37
2432.53 -2376.82 4445.98
2676.71 -2491.8 4912.23
2625.42 -1757.07 4890.9
2609.55 -1251.07 4888.1
2580.88 -442.817 4851.82
2546.59 882.711 4780.22
2541.49 1037.42 4766.53
2235.18 2070.66 4101.98
2633.92 -2022.66 4857.34
2599.6 -974.538 4852.1
2583.28 -572.828 4829.25
2570.29 125.415 4808.29
2563.63 295.208 4795.06
2509.96 1941.79 4626.91
2444.03 2040.49 4488.96
2378.64 2058.75 4359.74
1977.1 2104.8 3558.46
2521.53 -2438.74 4557.71
2642.62 -2341.12 4809.26
2625.02 -1885.6 4825.68
2593.29 -848.699 4817.64
2578.01 -319.995 4796.57
2574.17 -18.8383 4790.51
2551.37 616.235 4743.67
2512.91 1704.47 4627.47
2632.1 -2160.42 4784.05
2612.6 -1589.96 4797.79
2570.79 -187.587 4758.88
2523.61 1397.04 4642.2
2586.92 -682.031 4758.72
2550.35 443.108 4694.53
2515.03 1562.31 4591.05
2339.66 2065.03 4208.52
2341.32 -2370.99 4136.25
2620.51 -2273.57 4692.87
2600.54 -1410.68 4734.24
2599.81 -1202.2 4742.75
2533.07 1020.78 4626.33
2525.57 1245.16 4603.73
1971.39 2165.19 3445.72
2616.32 -1959.11 4695.84
2591.96 -973.279 4711.49
2578.18 -441.968 4696.9
2564.65 173.085 4674.23
2539.28 752.766 4620.76
2506.21 1903.08 4495.1
2179.12 2088.56 3847.48
2640.76 -2438.46 4652.37
2620.43 -1744.82 4697.4
2531.49 897.193 4578.96
2622.22 -2099.24 4638.77
2577.05 -310.413 4648
2537.18 569.671 4572.81
2515.84 1445.19 4502.03
2501.34 1745.06 4452.1
2505.6 -2426.11 4342.25
2561.7 57.2744 4597.89
2618.35 -2229.01 4562.02
2594.36 -1094.43 4614.32
2581.22 -547.22 4605.4
2562.97 -80.5625 4576.8
2546.39 267.911 4546.25
2615.51 -1923.63 4569.72
2602.01 -1547.24 4579.03
2582.92 -783.253 4580.15
2519.18 1291.44 4446.19
2477.95 -2412.43 4215.46
2628.54 -2355.78 4509.2
2596.14 -1373.17 4555.86
2545.11 412.792 4496.71
2529.91 740.457 4463.79
2522.79 896.877 4446.69
2519.63 1102.77 4433.26
2499.66 1613.5 4365.08
2105.67 2081.73 3574.45
1942.23 2070.34 3262.91
2597.96 -1667.41 4513.65
2495.11 1974.84 4294.3
2627.21 -2482.94 4431.71
2613 -2019.25 4479
2606.68 -1802.24 4492.37
2594.98 -1210.35 4515.61
2559.02 -213.639 4477.92
2499.86 1813.56 4298.8
2587.38 -1003.84 4488.4
2568.62 -666.172 4465.9
2561.04 -530.001 4455.39
2565.3 -384.233 4464.96
2549.92 55.3805 4440.35
2529.3 597.149 4398.66
2503.15 1437.63 4316.24
2603.93 -2141.29 4396.28
2598.41 -1496.13 4457.14
2492.53 1684.73 4253.18
2370.61 2085.63 3979.79
2214.31 2084.61 3691.72
2617.39 -2290.41 4372.02
2600.08 -1894.91 4398.09
2542.73 234.686 4383.18
2509.26 1036.78 4305.92
2506.68 1260.46 4289.64
2470.12 2046.35 4144.3
2519.05 751.982 4311.59
2596.81 -1741.3 4362.48
2596.95 -1607.84 4375.81
2588.14 -1384.61 4378.46
2578.93 -1138.57 4377.51
2551.87 -255.778 4355.54
2529.22 408.607 4315.01
2494.65 1895.74 4163.9
2306.44 2086.96 3795.25
2570.48 -842.503 4353.72
2558.32 -469.499 4342.4
2548.4 -123.806 4329.11
2608.21 -1998.48 4304.26
2562.09 -598.539 4324.89
2516.46 554.291 4248.46
2510.07 913.263 4226.66
2499.67 1395.72 4180.79
2490.34 1540.45 4152.21
2484.89 1721.21 4123.78
2602.49 -2152.87 4246.87
2593.35 -1846.42 4275.19
2587.42 -1496.28 4301.36
2534.73 100.014 4264.04
2567.31 -1018.37 4276.65
2554.39 -356.824 4274.17
2504.13 1098.09 4165.79
2492.84 1241.85 4137.84
2635.78 -2437.4 4204.16
2618.81 -2290.12 4203.72
2570.35 -1331.93 4241.57
2528.78 272.137 4211.69
2508.21 679.283 4149.07
2474.12 1851.32 4001.03
2568.14 -1190.86 4204.97
2554.48 -722.003 4204.25
2537.8 -211.84 4186.65
2151 2137.76 3354.43
2581.11 -1668.34 4163.88
2546.93 -510.041 4177.13
2518.57 426.257 4132.07
2489.87 1352.63 4041.53
2471.71 1699.18 3974.86
2605.18 -2143.81 4113.71
2595.59 -1996.19 4122.2
2575.74 -1460.97 4154.62
2539.06 -335.334 4147.31
2482.6 1509.68 3994.19
2479.34 1985.95 3924.13
2531.94 -16.2938 4118.25
2509.31 555.371 4074.6
2503.56 788.889 4057.7
2248.29 2084.01 3481.04
2613.1 -2340.31 4042.35
2552.85 -867.603 4115.1
2497.17 927.709 4021.47
2448.79 2074.68 3812.22
2516.69 206.741 4053.72
2489.81 1141.29 3977.25
2560.91 -1054.52 4078.64
2482.01 1274.89 3934.73
2354.61 2101.81 3601.73
2597.9 -2170.67 3983.7
2578.12 -1961.85 3988.58
2585.03 -1819.67 4022.33
2566.01 -1344.69 4045.67
2534.44 -638.729 4035.19
2531.34 -404.718 4036.15
2508.31 347.31 4000.31
2466.21 1596.65 3855.87
2570.67 -1577.07 4009.42
2522.87 -192.21 4006.63
2517.74 61.1389 3999.23
2485.17 1026.52 3919.14
2599.47 -2288.76 3916.82
2460.29 1718.05 3789.76
2465.93 1850.69 3778.18
2496.05 524.872 3920.84
2494.74 740.663 3911.41
2486.3 878.124 3891.64
2552.03 -1215.26 3954.92
2469.18 1347.41 3810.8
2504.8 167.316 3904.28
2472.97 1173.81 3813.72
